# .PCD v0.7 - Point Cloud Data file format
VERSION 0.7
FIELDS x y z
SIZE 4 4 4
TYPE F F F
COUNT 1 1 1
WIDTH 1352
HEIGHT 1
VIEWPOINT 0 0 0 1 0 0 0
POINTS 1352
DATA ascii
0.0071337866 -0.02685418 0.68699998
0.0090129757 -0.024974991 0.68699998
0.024081495 -0.026893269 0.68800002
-0.18131149 -0.021278378 0.68900001
-0.17796639 -0.02121661 0.68699998
-0.17540257 -0.021247495 0.68800002
-0.043667808 -0.021247495 0.68800002
0.012771355 -0.02121661 0.68699998
0.020317646 -0.02312942 0.68800002
-0.1784845 -0.019393718 0.68900001
0.014693196 -0.019393718 0.68900001
-0.18436305 -0.016244147 0.68866664
-0.18266436 -0.017458232 0.68699998
-0.17890599 -0.017458232 0.68699998
-0.17565751 -0.015624397 0.68900001
-0.17326842 -0.017458232 0.68699998
-0.024812436 -0.017458232 0.68699998
-0.021115351 -0.015624397 0.68900001
-0.18763506 -0.013719795 0.68800002
-0.18454354 -0.013699853 0.68699998
-0.18078518 -0.013699853 0.68699998
-0.17809661 -0.013709825 0.6875
-0.17138922 -0.013699853 0.68699998
-0.16975679 -0.013719795 0.68800002
-0.049313582 -0.013719795 0.68800002
-0.1850808 -0.0099704163 0.68900001
-0.18212087 -0.0099631809 0.68850005
-0.17809661 -0.00994871 0.6875
-0.17553005 -0.010905512 0.68850005
-0.17283052 -0.0099704163 0.68900001
-0.16893783 -0.0099631809 0.68850005
-0.15115692 -0.0099704163 0.68900001
-0.14236465 -0.00994871 0.6875
-0.055039242 -0.0099704163 0.68900001
-0.05112109 -0.0099414736 0.68699998
-0.15681089 -0.0062010954 0.68900001
-0.15398391 -0.0062010954 0.68900001
-0.064275421 -0.0061830948 0.68699998
-0.053000279 -0.0080622844 0.68699998
-0.019174868 -0.0080622844 0.68699998
-0.16034716 -0.002428245 0.68800002
-0.15752427 -0.002428245 0.68800002
-0.066250905 -0.002428245 0.68800002
-0.16811886 0.0013375464 0.68900001
-0.16623421 0.0013375464 0.68900001
-0.16387247 0.0013336637 0.68699998
-0.16128674 0.001335605 0.68799996
-0.16434954 0.0032222066 0.68900001
-0.077655166 0.0051068673 0.68900001
-0.022966631 0.0050994554 0.68800002
-0.07001476 0.010745231 0.68800002
-0.024848554 0.010745231 0.68800002
-0.026730482 0.016391005 0.68800002
-0.066250905 0.020154854 0.68800002
-0.062577881 0.02206881 0.68900001
-0.058808558 0.023953471 0.68900001
-0.028570814 0.022004748 0.68699998
-0.21273139 0.033279888 0.68699998
-0.058723204 0.033328332 0.68800002
-0.034208383 0.038917456 0.68699998
-0.05863785 0.040796645 0.68699998
-0.034208383 0.040796645 0.68699998
-0.053154577 0.044684738 0.68900001
-0.22997838 0.046501808 0.68800002
-0.043667808 0.046501808 0.68800002
-0.036192637 0.046569396 0.68900001
-0.060605131 0.055911429 0.68800002
-0.19535099 -0.12926441 0.69199997
-0.19331834 -0.13011608 0.69149995
-0.19034201 -0.13096774 0.69099998
-0.192899 -0.12700342 0.69
-0.19048041 -0.12727951 0.69149995
-0.18777953 -0.12737153 0.69199997
-0.19884896 -0.12435365 0.69099998
-0.19587125 -0.12520668 0.69050002
-0.19317856 -0.12435365 0.69099998
-0.19006792 -0.12322863 0.69
-0.18723682 -0.12322863 0.69
-0.18453866 -0.12331793 0.69050002
-0.19345812 -0.12169294 0.69199997
-0.19048178 -0.12160501 0.69149995
-0.18777953 -0.12169294 0.69199997
-0.19724385 -0.11980007 0.69199997
-0.19317856 -0.11962695 0.69099998
-0.19034201 -0.11868052 0.69099998
-0.18723682 -0.11945383 0.69
-0.19034337 -0.11584669 0.69099998
-0.18777953 -0.11601434 0.69199997
-0.18480727 -0.11593051 0.69149995
-0.18210094 -0.11601434 0.69199997
-0.18399379 -0.11222861 0.69199997
-0.18210094 -0.11222861 0.69199997
-0.17805751 -0.10356084 0.69099998
-0.17522097 -0.10356084 0.69099998
-0.1726366 -0.10371071 0.69199997
-0.18750818 -0.10072564 0.69099998
-0.1848059 -0.10079853 0.69149995
-0.18183778 -0.10072564 0.69099998
-0.17968725 -0.10057988 0.69
-0.17074373 -0.10087141 0.69199997
-0.19156525 -0.097085685 0.69199997
-0.18777953 -0.098978542 0.69199997
-0.18467434 -0.097891815 0.69099998
-0.17994766 -0.098835513 0.69099998
-0.17496875 -0.097748786 0.69
-0.17251186 -0.097961962 0.69149995
-0.19317856 -0.093165129 0.69099998
-0.19034201 -0.094111562 0.69099998
-0.18750818 -0.095055252 0.69099998
-0.18440571 -0.094917692 0.69
-0.18089135 -0.095055252 0.69099998
-0.17818636 -0.094178975 0.69149995
-0.1893983 -0.091274992 0.69099998
-0.18750818 -0.091274992 0.69099998
-0.18467161 -0.091274992 0.69099998
-0.18210094 -0.091407083 0.69199997
-0.1950687 -0.089384861 0.69099998
-0.19345812 -0.087621354 0.69199997
-0.19048178 -0.087558046 0.69149995
-0.18777953 -0.087621354 0.69199997
-0.18467434 -0.088438429 0.69099998
-0.18102293 -0.08944954 0.69149995
-0.19317856 -0.085604601 0.69099998
-0.18723682 -0.085480712 0.69
-0.1848059 -0.085666537 0.69149995
-0.18953535 -0.082828611 0.69149995
-0.18750818 -0.081824332 0.69099998
-0.016438728 -0.072321311 0.69050002
-0.01361612 -0.072373681 0.69099998
-0.011742957 -0.072478421 0.69199997
-0.021145998 -0.070381552 0.69
-0.0079457257 -0.07048355 0.69099998
-0.023100156 -0.068692684 0.69199997
-0.0060643582 -0.068692684 0.69199997
-0.0022720401 -0.064719364 0.69
-0.02869558 -0.05716978 0.69
0.0052775429 -0.059057176 0.69
0.0071753226 -0.058199067 0.69099998
-0.028737167 -0.0553625 0.69099998
-0.13288641 -0.051656887 0.69199997
-0.024974963 -0.052564628 0.69149995
-0.021145998 -0.051507592 0.69
0.020435771 -0.051656887 0.69199997
-0.138565 -0.049764022 0.69199997
-0.13667214 -0.049764022 0.69199997
-0.13477927 -0.049764022 0.69199997
-0.017371206 -0.0496202 0.69
0.022296371 -0.049692113 0.69099998
-0.13836476 -0.047801975 0.69099998
-0.13354206 -0.047767386 0.69050002
-0.13080424 -0.047801975 0.69099998
-0.1272078 -0.047871154 0.69199997
-0.12531494 -0.047871154 0.69199997
-0.12152921 -0.047871154 0.69199997
-0.11860484 -0.047836564 0.69149995
-0.1044934 -0.047871154 0.69199997
-0.097798347 -0.047836564 0.69149995
-0.093946688 -0.047801975 0.69099998
-0.091243342 -0.047871154 0.69199997
-0.089350477 -0.047871154 0.69199997
-0.085564747 -0.047871154 0.69199997
-0.01361612 -0.045911849 0.69099998
0.026114369 -0.047871154 0.69199997
-0.011742957 -0.044085424 0.69199997
0.031792969 -0.042192556 0.69199997
0.033685833 -0.040299688 0.69199997
-0.0060512135 -0.037379876 0.69050002
-0.0041594356 -0.036408424 0.69
-0.00038464443 -0.034521032 0.69
-0.009835857 -0.032680929 0.69099998
-0.0041714921 -0.032728225 0.69199997
0.0033950601 -0.030790797 0.69099998
-0.0070064096 -0.02892158 0.69149995
-0.0041594356 -0.028858844 0.69
0.026038896 -0.028858844 0.69
-0.17831519 -0.023263892 0.69199997
-0.17522369 -0.022286575 0.69099998
-0.045814551 -0.021371026 0.69199997
-0.036245164 -0.02130926 0.69
0.010939729 -0.023196656 0.69
-0.18399379 -0.019478159 0.69199997
-0.18157463 -0.019421864 0.69
-0.17522097 -0.019450013 0.69099998
-0.028737167 -0.019450013 0.69099998
0.016601916 -0.019421864 0.69
-0.1893983 -0.016614815 0.69099998
-0.18750818 -0.016614815 0.69099998
-0.18157463 -0.015647074 0.69
-0.17887375 -0.015658412 0.69050002
-0.17402506 -0.015647074 0.69
-0.17251186 -0.016626153 0.69149995
-0.17074373 -0.017585292 0.69199997
-0.19128843 -0.01377962 0.69099998
-0.16836286 -0.013759678 0.69
-0.14802933 -0.013799561 0.69199997
-0.14571412 -0.013759678 0.69
-0.14288302 -0.013759678 0.69
-0.1402549 -0.01377962 0.69099998
-0.18953535 -0.010953026 0.69149995
-0.18764386 -0.010953026 0.69149995
-0.18454003 -0.011880886 0.69050002
-0.18183778 -0.011889488 0.69099998
-0.17887375 -0.011880886 0.69050002
-0.17427726 -0.011889488 0.69099998
-0.17213766 -0.011872283 0.69
-0.16955194 -0.011889488 0.69099998
-0.16647547 -0.0099848863 0.69
-0.15348582 -0.0099993572 0.69099998
-0.14865354 -0.0099921217 0.69050002
-0.14497885 -0.01094579 0.69099998
-0.13920835 -0.0099921217 0.69050002
-0.062759526 -0.0099993572 0.69099998
-0.017396381 -0.0099993572 0.69099998
-0.1811545 -0.0071745282 0.69199997
-0.17868663 -0.0068491385 0.69099998
-0.17553735 -0.0068491385 0.69099998
-0.17213766 -0.0062100952 0.69
-0.16955194 -0.0062190956 0.69099998
-0.166958 -0.0062280954 0.69199997
-0.16399944 -0.0062235957 0.69149995
-0.16010126 -0.0062190956 0.69099998
-0.15148598 -0.0071596606 0.69050002
-0.14886744 -0.0062235957 0.69149995
-0.1442436 -0.0062280954 0.69199997
-0.16021779 -0.0043320963 0.69149995
-0.15703848 -0.0043226997 0.69
-0.15465437 -0.0043352288 0.69199997
-0.074207544 -0.0043352288 0.69199997
-0.1754759 -0.0024423625 0.69199997
-0.17238712 -0.002438833 0.69099998
-0.16955261 -0.0014930838 0.69099998
-0.16577029 -0.0014924 0.69099998
-0.163487 -0.0018067012 0.69066668
-0.15998474 -0.00054830511 0.69050002
-0.15749367 -0.00054949621 0.69199997
-0.15454194 -0.0024405979 0.69149995
-0.021145998 -0.00054790807 0.69
-0.17238712 0.0013414288 0.69099998
-0.170497 0.0013414288 0.69099998
-0.15820977 0.0013414288 0.69099998
-0.021145998 0.0013394876 0.69
-0.166958 0.0032362363 0.69199997
-0.1633298 0.0044851471 0.69
-0.16116287 0.0041789636 0.69149995
-0.068429925 0.0032315599 0.69099998
-0.1612794 0.0089148348 0.69199997
-0.070320047 0.0089019528 0.69099998
-0.16021779 0.010799893 0.69149995
-0.15749367 0.010807702 0.69199997
-0.15443088 0.010792084 0.69099998
-0.15137629 0.010776467 0.69
-0.14992221 0.010807702 0.69199997
-0.1591562 0.014572346 0.69099998
-0.15749367 0.014593435 0.69199997
-0.15426485 0.013955449 0.6916666
-0.15159568 0.013625912 0.69099998
-0.14907551 0.013941391 0.69099998
-0.14613648 0.014593435 0.69199997
-0.14886881 0.016474389 0.69149995
-0.14613648 0.0164863 0.69199997
-0.15749367 0.018379167 0.69199997
-0.15465437 0.018379167 0.69199997
-0.15159568 0.018352607 0.69099998
-0.14865354 0.018339328 0.69050002
-0.14498022 0.018352607 0.69099998
-0.14214502 0.018352607 0.69099998
-0.068429925 0.020242739 0.69099998
-0.026808186 0.018326048 0.69
-0.15159568 0.02213287 0.69099998
-0.14992221 0.0221649 0.69199997
-0.076100416 0.0221649 0.69199997
-0.14897576 0.025950631 0.69199997
-0.075990446 0.02591313 0.69099998
-0.074207544 0.025950631 0.69199997
-0.059064616 0.029736366 0.69199997
-0.030605137 0.028728211 0.69050002
-0.058979262 0.031583525 0.69099998
-0.083671883 0.033522099 0.69199997
-0.032564487 0.035414964 0.69199997
-0.060869392 0.03725392 0.69099998
-0.093136214 0.044879299 0.69199997
-0.091243342 0.044879299 0.69199997
-0.088404045 0.044879299 0.69199997
-0.057006516 0.042862192 0.69
-0.055199005 0.044814445 0.69099998
-0.093136214 0.046772163 0.69199997
-0.089350477 0.046772163 0.69199997
-0.045814551 0.046772163 0.69199997
-0.10070767 0.048665028 0.69199997
-0.096921943 0.048665028 0.69199997
-0.093001626 0.048594706 0.69099998
-0.091177419 0.049576297 0.69149995
-0.08909224 0.04852438 0.69
-0.093001626 0.05237497 0.69099998
-0.090979636 0.052299172 0.69
-0.06852895 0.060022227 0.69199997
-0.0060643582 0.064754397 0.69199997
-0.0041654641 0.063715748 0.69099998
-0.0022786257 0.063807957 0.69199997
-0.19049467 -0.13552803 0.69499999
-0.19239575 -0.13362695 0.69499999
-0.19049467 -0.13362695 0.69499999
-0.19672361 -0.13049242 0.69350004
-0.19116838 -0.12963802 0.69400001
-0.18777901 -0.13096583 0.69433331
-0.19942452 -0.12755561 0.69300002
-0.19049467 -0.12602265 0.69499999
-0.18737444 -0.12678912 0.69400001
-0.18452558 -0.12773967 0.69400001
-0.18289039 -0.12792373 0.69499999
-0.20132011 -0.12376441 0.69300002
-0.19211891 -0.12584133 0.69400001
-0.1864239 -0.12584133 0.69400001
-0.18452558 -0.12584133 0.69400001
-0.18167672 -0.123943 0.69400001
-0.20190111 -0.12126998 0.69499999
-0.19971228 -0.12109549 0.69400001
-0.19672224 -0.12195674 0.69350004
-0.18615529 -0.1218688 0.69300002
-0.18452558 -0.12204466 0.69400001
-0.18289039 -0.12222052 0.69499999
-0.17908823 -0.12031944 0.69499999
-0.19563331 -0.1199732 0.69300002
-0.19401726 -0.11824799 0.69400001
-0.19184209 -0.11807761 0.69300002
-0.18723878 -0.11911059 0.69350004
-0.1842597 -0.1199732 0.69300002
-0.1814163 -0.1199732 0.69300002
-0.19591559 -0.11634964 0.69400001
-0.1937377 -0.116182 0.69300002
-0.18669252 -0.11461623 0.69499999
-0.18452558 -0.11445132 0.69400001
-0.18154788 -0.11531666 0.69350004
-0.1781377 -0.1165173 0.69499999
-0.17528611 -0.1165173 0.69499999
-0.1864239 -0.11255298 0.69400001
-0.1804685 -0.1123908 0.69300002
-0.17800887 -0.11263406 0.69449997
-0.1750339 -0.11255298 0.69400001
-0.17288609 -0.1123908 0.69300002
-0.17004268 -0.1123908 0.69300002
-0.16768181 -0.11271515 0.69499999
-0.18072891 -0.1087563 0.69400001
-0.17857288 -0.1085996 0.69300002
-0.1759817 -0.1087563 0.69400001
-0.17243449 -0.10891301 0.69499999
-0.16946088 -0.10978519 0.69449997
-0.16673127 -0.10891301 0.69499999
-0.17883056 -0.10685796 0.69400001
-0.17610916 -0.10693495 0.69449997
-0.16673127 -0.10511086 0.69499999
-0.16387966 -0.10511086 0.69499999
-0.18059871 -0.10393484 0.69350004
-0.17123722 -0.10401046 0.69400001
-0.19239575 -0.10130872 0.69499999
-0.19008353 -0.1001409 0.69350004
-0.18452558 -0.099264614 0.69400001
-0.18236409 -0.099121578 0.69300002
-0.17148395 -0.099407643 0.69499999
-0.16958287 -0.10130872 0.69499999
-0.16673127 -0.10130872 0.69499999
-0.16387966 -0.10130872 0.69499999
-0.16007751 -0.10130872 0.69499999
-0.1961979 -0.097506575 0.69499999
-0.19401726 -0.097366281 0.69400001
-0.17123722 -0.097366281 0.69400001
-0.19942452 -0.093434788 0.69300002
-0.1965811 -0.093434788 0.69300002
-0.19239575 -0.0956055 0.69499999
-0.17585626 -0.094451368 0.69349998
-0.1732603 -0.09458755 0.69449997
-0.1543743 -0.093704432 0.69499999
-0.20000005 -0.091803357 0.69499999
-0.19700591 -0.091737315 0.69449997
-0.1937377 -0.091539182 0.69300002
-0.19184209 -0.091539182 0.69300002
-0.1804685 -0.091539182 0.69300002
-0.1781377 -0.091803357 0.69499999
-0.19672224 -0.088759087 0.69350004
-0.18452558 -0.087874599 0.69400001
-0.18289039 -0.088001214 0.69499999
-0.17883056 -0.089772925 0.69400001
-0.17693223 -0.089772925 0.69400001
-0.15739192 -0.089182355 0.69433331
-0.15415218 -0.089772925 0.69400001
-0.15247323 -0.089902282 0.69499999
-0.1961979 -0.086100139 0.69499999
-0.18669252 -0.084199071 0.69499999
-0.18262725 -0.085976258 0.69400001
-0.15711212 -0.086038202 0.69449997
-0.19239575 -0.082297996 0.69499999
-0.19184209 -0.083956771 0.69300002
-0.1872374 -0.083068177 0.69350004
-0.015573571 -0.074586235 0.69400001
-0.013675235 -0.074586235 0.69400001
-0.01084333 -0.073743165 0.69499999
-0.0022852113 -0.066992886 0.69400001
-0.027002446 -0.065188341 0.69499999
-0.00038687425 -0.065094545 0.69400001
-0.028903518 -0.061386198 0.69499999
0.0034048869 -0.061209548 0.69300002
0.0091179311 -0.057584055 0.69499999
-0.13726464 -0.05568298 0.69499999
0.010987294 -0.05552274 0.69300002
-0.1410668 -0.051880836 0.69499999
-0.13876525 -0.051731542 0.69300002
-0.13601923 -0.051768865 0.69350004
-0.13032833 -0.051768865 0.69350004
-0.12757546 -0.051806189 0.69400001
-0.12463741 -0.051768865 0.69350004
-0.12188045 -0.051806189 0.69400001
-0.11903295 -0.051806189 0.69400001
-0.11531998 -0.051843513 0.69449997
-0.11255071 -0.051880836 0.69499999
-0.10494641 -0.051880836 0.69499999
-0.10012234 -0.051843513 0.69449997
-0.09720207 -0.051806189 0.69400001
-0.094353199 -0.051806189 0.69400001
-0.091638908 -0.051880836 0.69499999
-0.088724107 -0.051843513 0.69449997
-0.085812047 -0.051806189 0.69400001
-0.026924742 -0.053627141 0.69300002
-0.1410668 -0.049979765 0.69499999
-0.13307844 -0.049835939 0.69300002
-0.13137214 -0.049907852 0.69400001
-0.12757546 -0.049907852 0.69400001
-0.12472796 -0.049907852 0.69400001
-0.12101772 -0.049943808 0.69449997
-0.11808378 -0.049907852 0.69400001
-0.11436944 -0.048994638 0.69449997
-0.11246973 -0.048994638 0.69449997
-0.11049043 -0.048009511 0.69400001
-0.10392175 -0.048994638 0.69449997
-0.10012234 -0.049943808 0.69449997
-0.097062014 -0.049835939 0.69300002
-0.094421864 -0.049943808 0.69449997
-0.091638908 -0.049979765 0.69499999
-0.08593569 -0.049979765 0.69499999
-0.083913706 -0.048009511 0.69400001
-0.080117032 -0.048009511 0.69400001
-0.019398157 -0.049979765 0.69499999
-0.01747191 -0.048009511 0.69400001
-0.13991329 -0.047058977 0.69400001
-0.13611798 -0.046111178 0.69400001
-0.12928724 -0.047940336 0.69300002
-0.12360044 -0.047940336 0.69300002
-0.11601803 -0.047940336 0.69300002
-0.10843562 -0.047940336 0.69300002
-0.10654002 -0.047940336 0.69300002
-0.10085321 -0.047940336 0.69300002
-0.09353999 -0.046177618 0.69499999
-0.087584004 -0.047940336 0.69300002
-0.081897199 -0.047940336 0.69300002
0.028047713 -0.046044733 0.69300002
-0.120155 -0.044276547 0.69499999
-0.11825392 -0.044276547 0.69499999
-0.11635285 -0.044276547 0.69499999
-0.10684749 -0.044276547 0.69499999
-0.00987856 -0.042314503 0.69400001
-0.06113366 -0.040416162 0.69400001
-0.00987856 -0.040416162 0.69400001
-0.01084333 -0.036672253 0.69499999
-0.0079687238 -0.036566723 0.69300002
-0.0070324214 -0.034721155 0.69400001
-0.0041895765 -0.034771185 0.69499999
-0.0022885043 -0.034771185 0.69499999
-0.011793866 -0.03287011 0.69499999
-0.0070266724 -0.030902198 0.69350004
-0.0041835485 -0.030924477 0.69400001
-0.0013374105 -0.032822818 0.69400001
-0.00987856 -0.029026141 0.69400001
-0.0041895765 -0.027166892 0.69499999
-0.0022852113 -0.029026141 0.69400001
0.0034098001 -0.029026141 0.69400001
-0.17883056 -0.025229467 0.69400001
-0.17667729 -0.025193114 0.69300002
-0.0041895765 -0.02526582 0.69499999
0.0071960906 -0.025193114 0.69300002
-0.18452558 -0.021432793 0.69400001
-0.18072891 -0.02333113 0.69400001
-0.17313556 -0.021432793 0.69400001
-0.034556944 -0.021432793 0.69400001
0.011019004 -0.021463675 0.69499999
-0.18669252 -0.019562602 0.69499999
-0.0478453 -0.019534456 0.69400001
0.012920075 -0.019562602 0.69499999
-0.19239575 -0.015760459 0.69499999
-0.17123722 -0.015737781 0.69400001
-0.16946088 -0.01669829 0.69449997
-0.16768181 -0.017661531 0.69499999
-0.14566246 -0.01669262 0.69424999
-0.142865 -0.016699657 0.69449997
-0.049779478 -0.016699657 0.69449997
-0.023166921 -0.017636118 0.69400001
-0.19401726 -0.013839445 0.69400001
-0.16719928 -0.013819504 0.69300002
-0.15119636 -0.013829474 0.69350004
-0.13896549 -0.013839445 0.69400001
-0.051716387 -0.013859386 0.69499999
-0.017497085 -0.013859386 0.69499999
-0.19225733 -0.011000542 0.69449997
-0.16637212 -0.010984704 0.69350004
-0.16387966 -0.010057241 0.69499999
-0.16007751 -0.010057241 0.69499999
-0.15817644 -0.010057241 0.69499999
-0.15582567 -0.010028299 0.69300002
-0.1515227 -0.011958314 0.69499999
-0.14845717 -0.011941108 0.69400001
-0.14634766 -0.011923902 0.69300002
-0.14255646 -0.011923902 0.69300002
-0.13981317 -0.011932505 0.69350004
-0.13706714 -0.01004277 0.69400001
-0.052589774 -0.010993307 0.69400001
-0.017446734 -0.011923902 0.69300002
-0.18669252 -0.0081561683 0.69499999
-0.1842597 -0.0071848971 0.69300002
-0.18262725 -0.0081444327 0.69400001
-0.1747817 -0.008132698 0.69300002
-0.17218639 -0.0081444327 0.69400001
-0.16933888 -0.0081444327 0.69400001
-0.16744055 -0.0081444327 0.69400001
-0.15605052 -0.0081444327 0.69400001
-0.15393007 -0.008132698 0.69300002
-0.15035552 -0.0081444327 0.69400001
-0.14824326 -0.008132698 0.69300002
-0.14571579 -0.007500831 0.69300002
-0.14181164 -0.0071952641 0.69400001
-0.17610916 -0.0043508913 0.69449997
-0.17218639 -0.0043477588 0.69400001
-0.16933888 -0.0043477588 0.69400001
-0.16649137 -0.0043477588 0.69400001
-0.16364387 -0.0043477588 0.69400001
-0.15247323 -0.0043540234 0.69499999
-0.17908823 -0.0024529509 0.69499999
-0.17528611 -0.00055187842 0.69499999
-0.17288609 -0.00055029028 0.69300002
-0.16719928 -0.00055029028 0.69300002
-0.15627538 -0.00055187842 0.69499999
-0.15141299 -0.0024511861 0.69449997
-0.074314788 -0.00055029028 0.69300002
-0.17528611 0.001349194 0.69499999
-0.15627538 0.001349194 0.69499999
-0.083792798 0.0013453115 0.69300002
-0.068727016 0.0013472527 0.69400001
-0.16933888 0.0032455898 0.69400001
-0.16719928 0.005136515 0.69300002
-0.15973204 0.0041910522 0.69350004
-0.1655422 0.0070422641 0.69400001
-0.16340807 0.0079799183 0.69300002
-0.16032553 0.0076673664 0.69333339
-0.15683411 0.0083154989 0.69466662
-0.15415218 0.0079914322 0.69400001
-0.15225384 0.0089406008 0.69400001
-0.023166921 0.0070422641 0.69400001
-0.16340807 0.010823321 0.69300002
-0.14845717 0.010838939 0.69400001
-0.22818734 0.014635613 0.69400001
-0.22027612 0.014614524 0.69300002
-0.16387966 0.014656701 0.69499999
-0.16095829 0.013356906 0.69333333
-0.15794885 0.012737276 0.69400001
-0.15582567 0.012718922 0.69300002
-0.14845717 0.012737276 0.69400001
-0.1446605 0.014635613 0.69400001
-0.14296786 0.014656701 0.69499999
-0.072419189 0.014614524 0.69300002
-0.025065256 0.012737276 0.69400001
-0.16007751 0.016557774 0.69499999
-0.15794885 0.01653395 0.69400001
-0.15498893 0.016522039 0.69350004
-0.15203446 0.016510125 0.69300002
-0.14445205 0.016510125 0.69300002
-0.14276215 0.01653395 0.69400001
-0.072523683 0.01653395 0.69400001
-0.16079774 0.018432286 0.69400001
-0.15711348 0.020345271 0.69449997
-0.15415218 0.020330623 0.69400001
-0.15108666 0.020301329 0.69300002
-0.14824326 0.020301329 0.69300002
-0.14560968 0.020330623 0.69400001
-0.14276215 0.020330623 0.69400001
-0.14066085 0.018405728 0.69300002
-0.072523683 0.018432287 0.69400001
-0.07062535 0.020330623 0.69400001
-0.21458931 0.022196932 0.69300002
-0.15817644 0.02226099 0.69499999
-0.15487787 0.022196932 0.69300002
-0.14824326 0.022196932 0.69300002
-0.14539985 0.022196932 0.69300002
-0.14276215 0.02222896 0.69400001
-0.073419236 0.022212945 0.69350004
-0.064836778 0.022196932 0.69300002
-0.15162106 0.024759166 0.69400001
-0.14845717 0.024127299 0.69400001
-0.14655884 0.024127299 0.69400001
-0.079169229 0.026025634 0.69400001
-0.076210395 0.024092535 0.69300002
-0.073471487 0.025077835 0.69400001
-0.061221749 0.024162063 0.69499999
-0.059149973 0.025988134 0.69300002
-0.028820343 0.024092535 0.69300002
-0.082015373 0.02982231 0.69400001
-0.079196721 0.028883202 0.69424999
-0.059235327 0.027923973 0.69400001
-0.084985152 0.031766355 0.69499999
-0.082133554 0.031766355 0.69499999
-0.22091183 0.033667427 0.69499999
-0.087836772 0.03461796 0.69499999
-0.085750222 0.034543931 0.69350004
-0.08302363 0.034592375 0.69449997
-0.061177704 0.034592375 0.69449997
-0.088596359 0.037388705 0.69350004
-0.08593569 0.037469573 0.69499999
-0.032611545 0.037361749 0.69300002
-0.091507055 0.041212332 0.69400001
-0.088691831 0.040276643 0.69425005
-0.085812047 0.041212332 0.69400001
-0.070727117 0.041271716 0.69499999
-0.067728326 0.041182641 0.69350004
-0.064026579 0.041242026 0.69449997
-0.061045572 0.040205151 0.69300002
-0.095166408 0.044944156 0.69300002
-0.091638908 0.043172788 0.69499999
-0.088787302 0.043172788 0.69499999
-0.085812047 0.043110669 0.69400001
-0.059149973 0.043048549 0.69300002
-0.034507148 0.043048549 0.69300002
-0.10046208 0.045685023 0.69466662
-0.09720207 0.045958176 0.69400001
-0.095303729 0.046907347 0.69400001
-0.091375202 0.046839755 0.69300002
-0.087710388 0.046907347 0.69400001
-0.085812047 0.04500901 0.69400001
-0.063726239 0.045685936 0.69466662
-0.061221749 0.045073863 0.69499999
-0.05828616 0.04500901 0.69400001
-0.047914241 0.046974935 0.69499999
-0.034556944 0.04500901 0.69400001
-0.10304534 0.048876006 0.69499999
-0.10012098 0.050740547 0.69449997
-0.098149866 0.049756218 0.69400001
-0.094287269 0.04971832 0.69350004
-0.088300131 0.050047796 0.6936667
-0.06402795 0.048840843 0.69449997
-0.061221749 0.048876006 0.69499999
-0.040309954 0.048876006 0.69499999
-0.038408879 0.048876006 0.69499999
-0.099243209 0.052678153 0.69499999
-0.09720207 0.052602358 0.69400001
-0.095166408 0.052526563 0.69300002
-0.088658184 0.052602358 0.69400001
-0.094039083 0.055133473 0.69400001
-0.091507055 0.055451229 0.69400001
-0.080232471 0.06503512 0.69499999
-0.010511339 0.064625151 0.69400001
-0.0079687238 0.064847976 0.69300002
-0.0041775205 0.065795779 0.69300002
-0.0013363215 0.064987645 0.69449997
-0.0060906489 0.067886733 0.69499999
-0.19322623 -0.13611305 0.69800001
-0.18886496 -0.13572302 0.69599998
-0.19485596 -0.13401149 0.69700003
-0.18913634 -0.13401149 0.69700003
-0.18558912 -0.13229448 0.69800001
-0.18696114 -0.1300116 0.69599998
-0.18558912 -0.13038521 0.69800001
-0.20248213 -0.12638532 0.69700003
-0.18315354 -0.12620398 0.69599998
-0.18151017 -0.12829186 0.69700003
-0.17986129 -0.12465737 0.69800001
-0.18124974 -0.12239637 0.69599998
-0.17769708 -0.12066568 0.69700003
-0.17604275 -0.12083881 0.69800001
-0.19962367 -0.11875915 0.69700003
-0.19648018 -0.11858876 0.69599998
-0.18696114 -0.11858876 0.69599998
-0.18410544 -0.11858876 0.69599998
-0.18124974 -0.11858876 0.69599998
-0.1785215 -0.11867395 0.6965
-0.17604275 -0.11892954 0.69800001
-0.17222418 -0.11702025 0.69800001
-0.17031489 -0.11702025 0.69800001
-0.19838399 -0.11668494 0.69599998
-0.1970448 -0.11511098 0.69800001
-0.19376427 -0.1148636 0.6965
-0.19008961 -0.11494607 0.69700003
-0.18151017 -0.11494607 0.69700003
-0.17865035 -0.11494607 0.69700003
-0.17553832 -0.11478114 0.69599998
-0.17308216 -0.11547071 0.69633335
-0.1700709 -0.11494607 0.69700003
-0.19376427 -0.11295843 0.6965
-0.19076876 -0.11287733 0.69599998
-0.18818167 -0.11208487 0.69700003
-0.18436998 -0.11113297 0.69700003
-0.18151017 -0.11113297 0.69700003
-0.17865035 -0.11113297 0.69700003
-0.16649634 -0.11129241 0.69800001
-0.19036233 -0.10938314 0.69800001
-0.18722978 -0.10922644 0.69700003
-0.18423839 -0.10914808 0.6965
-0.17553832 -0.11097352 0.69599998
-0.1726826 -0.11097352 0.69599998
-0.16792308 -0.11097352 0.69599998
-0.16316356 -0.10906972 0.69599998
-0.16076851 -0.10938314 0.69800001
-0.18940769 -0.10556458 0.69800001
-0.18722978 -0.10541334 0.69700003
-0.18396358 -0.10599935 0.69666672
-0.18124974 -0.10716591 0.69599998
-0.17293072 -0.10731989 0.69700003
-0.16935404 -0.10663396 0.69666672
-0.16601926 -0.10716591 0.69599998
-0.16308025 -0.10668528 0.69700003
-0.16053818 -0.10541334 0.69700003
-0.19036233 -0.10365531 0.69800001
-0.18722978 -0.1035068 0.69700003
-0.18410544 -0.1033583 0.69599998
-0.1700709 -0.1035068 0.69700003
-0.16709045 -0.10343255 0.6965
-0.16351452 -0.10358106 0.69749999
-0.16076851 -0.10365531 0.69800001
-0.19609016 -0.10079138 0.69800001
-0.19376427 -0.10057546 0.6965
-0.16923827 -0.099765226 0.69749999
-0.16625781 -0.099693716 0.69700003
-0.16315883 -0.10037599 0.69733334
-0.15745214 -0.10145448 0.69599998
-0.15504067 -0.10174602 0.69800001
-0.19976619 -0.096902683 0.69749999
-0.16899562 -0.097717024 0.6965
-0.1662578 -0.096832529 0.69700003
-0.163398 -0.096832529 0.69700003
-0.16076851 -0.097927473 0.69800001
-0.15756594 -0.097717024 0.6965
-0.15425617 -0.096561082 0.69733334
-0.15195736 -0.097787172 0.69700003
-0.20248213 -0.093974091 0.69700003
-0.19866903 -0.095880628 0.69700003
-0.1967625 -0.095880628 0.69700003
-0.19457638 -0.09574306 0.69599998
-0.17185408 -0.094859943 0.6965
-0.16911763 -0.093974091 0.69700003
-0.16601926 -0.093839258 0.69599998
-0.16316356 -0.093839258 0.69599998
-0.16030784 -0.093839258 0.69599998
-0.15756594 -0.093906671 0.6965
-0.1517407 -0.093839258 0.69599998
-0.14931284 -0.094108917 0.69800001
-0.20028782 -0.090031639 0.69599998
-0.17540632 -0.091563202 0.69800001
-0.16649634 -0.091244996 0.69800001
-0.16331421 -0.090926789 0.69800001
-0.16065335 -0.09118031 0.69749999
-0.15767837 -0.092067547 0.69700003
-0.15386391 -0.09206754 0.69700003
-0.15111378 -0.09118031 0.69749999
-0.18151017 -0.088254459 0.69700003
-0.16076851 -0.088381082 0.69800001
-0.15650024 -0.088127837 0.69599998
-0.15459642 -0.088127837 0.69599998
-0.18558912 -0.084562518 0.69800001
-0.18124974 -0.086224027 0.69599998
-0.17934592 -0.086224027 0.69599998
-0.16053818 -0.086347915 0.69700003
-0.15459642 -0.086224027 0.69599998
-0.18532324 -0.082534827 0.69700003
-0.18940769 -0.080743961 0.69800001
-0.18749839 -0.080743961 0.69800001
-0.11573441 -0.078721739 0.69700003
-0.10612482 -0.078665271 0.6965
-0.11494582 -0.075016126 0.69800001
-0.11303654 -0.075016126 0.69800001
-0.10635407 -0.075016126 0.69800001
-0.019426066 -0.072897367 0.69599998
-0.017547436 -0.074908651 0.69700003
-0.11494582 -0.071197569 0.69800001
-0.0061081764 -0.071095571 0.69700003
-0.11494582 -0.067379013 0.69800001
-0.1128746 -0.067282483 0.69700003
-0.10993655 -0.067234218 0.6965
-0.10620032 -0.067282483 0.69700003
-0.10974919 -0.06413617 0.69733334
-0.10635407 -0.064515099 0.69800001
-0.028986694 -0.063469395 0.69700003
0.0034245399 -0.063469395 0.69700003
-0.13936596 -0.055763096 0.69599998
-0.13575312 -0.055843219 0.69700003
-0.13289192 -0.055843219 0.69700003
-0.13022006 -0.055923339 0.69800001
-0.12731086 -0.054948669 0.69774997
-0.12449221 -0.055923339 0.69800001
-0.11590046 -0.0549687 0.69800001
-0.1128746 -0.055843219 0.69700003
-0.10539942 -0.055923339 0.69800001
-0.088215925 -0.055923339 0.69800001
-0.086306639 -0.055923339 0.69800001
-0.029028282 -0.054014061 0.69800001
-0.13956621 -0.053936679 0.69700003
-0.13670638 -0.053936679 0.69700003
-0.13384658 -0.053936679 0.69700003
-0.13194002 -0.053936679 0.69700003
-0.11478115 -0.053936679 0.69700003
-0.1128746 -0.053936679 0.69700003
-0.11001341 -0.052030131 0.69700003
-0.10715497 -0.052030135 0.69700003
-0.10319361 -0.051955484 0.69599998
-0.084276453 -0.052030135 0.69700003
-0.082251728 -0.051955484 0.69599998
-0.080347918 -0.051955484 0.69599998
-0.027041299 -0.051955484 0.69599998
-0.12984692 -0.050051678 0.69599998
-0.11652026 -0.050051678 0.69599998
-0.10985693 -0.050051678 0.69599998
-0.10700122 -0.050051678 0.69599998
-0.10319361 -0.050051678 0.69599998
-0.08891505 -0.050051678 0.69599998
-0.084276453 -0.050123595 0.69700003
-0.082251728 -0.050051678 0.69599998
-0.080578804 -0.050195508 0.69800001
0.024431517 -0.050195508 0.69800001
-0.13365453 -0.046244059 0.69599998
-0.13108003 -0.046343729 0.69749999
-0.12717368 -0.046310507 0.69700003
-0.12431386 -0.046310507 0.69700003
-0.12145405 -0.046310507 0.69700003
-0.11842407 -0.046244059 0.69599998
-0.11573304 -0.046310503 0.69700003
-0.1120819 -0.046376947 0.69800001
-0.10890504 -0.046244059 0.69599998
-0.10612482 -0.046277285 0.6965
-0.10349015 -0.046376947 0.69800001
-0.10048208 -0.046310507 0.69700003
-0.09748219 -0.046244059 0.69599998
-0.095578372 -0.046244059 0.69599998
-0.091770761 -0.046244059 0.69599998
-0.089996077 -0.046310507 0.69700003
-0.086306639 -0.046376947 0.69800001
-0.082369909 -0.046310507 0.69700003
-0.015663333 -0.046376947 0.69800001
-0.13956621 -0.044403963 0.69700003
-0.13651025 -0.044340253 0.69599998
-0.13384658 -0.044403963 0.69700003
-0.1308921 -0.044372108 0.6965
-0.12726422 -0.044435814 0.69749999
-0.12449221 -0.044467669 0.69800001
-0.12223168 -0.044340253 0.69599998
-0.11478115 -0.044403963 0.69700003
-0.1120819 -0.044467669 0.69800001
-0.10906152 -0.044403963 0.69700003
-0.10509741 -0.044340253 0.69599998
-0.10349015 -0.044467669 0.69800001
-0.094763801 -0.044403963 0.69700003
-0.091013908 -0.044435814 0.69749999
-0.085352004 -0.044467669 0.69800001
-0.08248809 -0.044467669 0.69800001
-0.061397929 -0.042497419 0.69700003
-0.01373435 -0.044403963 0.69700003
-0.063213646 -0.040532634 0.69599998
-0.059406031 -0.040532634 0.69599998
-0.057667464 -0.036830552 0.69800001
-0.055758186 -0.036830552 0.69800001
-0.053771757 -0.036777787 0.69700003
-0.01373435 -0.036777787 0.69700003
-0.0099354973 -0.038739834 0.69800001
-0.00800322 -0.038628828 0.69599998
0.033977911 -0.038739834 0.69800001
-0.009921263 -0.034871247 0.69700003
-0.01373435 -0.032964703 0.69700003
-0.0099070286 -0.031013597 0.69599998
0.028209604 -0.031058159 0.69700003
0.030116145 -0.032964703 0.69700003
-0.011827806 -0.029151617 0.69700003
-0.007067197 -0.027264616 0.69749999
-0.0022950899 -0.027245071 0.69700003
0.0053234342 -0.027205981 0.69599998
-0.17553832 -0.025302174 0.69599998
-0.010874534 -0.025338531 0.69700003
-0.0070570656 -0.025320351 0.6965
-0.002291797 -0.025302174 0.69599998
-0.17553832 -0.023398366 0.69599998
-0.1717307 -0.021494558 0.69599998
-0.17031489 -0.021556325 0.69800001
-0.14740357 -0.021556325 0.69800001
-0.048121065 -0.021556325 0.69800001
-0.031845141 -0.021525443 0.69700003
-0.0099354973 -0.021556325 0.69800001
0.0091572888 -0.023465604 0.69800001
-0.17280596 -0.019604824 0.6965
-0.19267257 -0.017686943 0.69599998
-0.16816436 -0.015805813 0.69700003
-0.15313138 -0.016783129 0.69800001
-0.15100546 -0.016759085 0.69700003
-0.14899196 -0.016746378 0.6965
-0.14126977 -0.015783135 0.69599998
-0.01945398 -0.015805813 0.69700003
0.014863799 -0.017712357 0.69700003
-0.16601926 -0.013879327 0.69599998
-0.15481855 -0.01389927 0.69700003
-0.13785715 -0.012009933 0.69800001
-0.061486017 -0.012009933 0.69800001
-0.19513552 -0.010100653 0.69800001
-0.19457638 -0.011975519 0.69599998
-0.16601926 -0.011975519 0.69599998
-0.16221166 -0.010071712 0.69599998
-0.15459642 -0.011975519 0.69599998
-0.19036233 -0.0081913751 0.69800001
-0.18696114 -0.0062640961 0.69599998
-0.16601926 -0.0081679039 0.69599998
-0.16351452 -0.0081855077 0.69749999
-0.16076851 -0.0081913751 0.69800001
-0.15840404 -0.0081679039 0.69599998
-0.13976644 -0.0081913751 0.69800001
-0.17934592 -0.0043602884 0.69599998
-0.15078881 -0.0043602884 0.69599998
-0.14931284 -0.0043728179 0.69800001
-0.14549428 -0.0043728179 0.69800001
-0.143585 -0.0043728179 0.69800001
-0.019426066 -0.0043602884 0.69599998
-0.17769708 -0.00055346655 0.69700003
-0.15386391 -0.00055346655 0.69700003
-0.15122211 -0.00055426062 0.69800001
-0.14825124 -0.0024617745 0.69749999
-0.14549428 -0.0024635391 0.69800001
-0.019426066 -0.0024564802 0.69599998
-0.17769708 0.0013530767 0.69700003
-0.15459642 0.0013511353 0.69599998
-0.15184903 0.001352106 0.6965
-0.076650277 0.0013530767 0.69700003
-0.17261295 0.0038960457 0.69700003
-0.16982688 0.0051587508 0.69599998
-0.15767768 0.0042122076 0.69700003
-0.15433019 0.0045346785 0.69766665
-0.084397361 0.0051735751 0.69800001
-0.021360522 0.0032596199 0.69700003
-0.16828498 0.0080324188 0.69749999
-0.16601926 0.0089663658 0.69599998
-0.15840404 0.0070625586 0.69599998
-0.1517407 0.008014462 0.69599998
-0.070828877 0.0070625586 0.69599998
-0.16625781 0.010885794 0.69700003
-0.14698119 0.010870175 0.69599998
-0.16411546 0.012773982 0.69599998
-0.14698119 0.012773982 0.69599998
-0.14126977 0.01467779 0.69599998
-0.13976644 0.014719968 0.69800001
-0.072837189 0.012792337 0.69700003
-0.02513749 0.01467779 0.69599998
-0.16221166 0.016581597 0.69599998
-0.14126977 0.016581597 0.69599998
-0.13976644 0.016629247 0.69800001
-0.22122969 0.020389212 0.69599998
-0.16076851 0.020447804 0.69800001
-0.14147276 0.020418508 0.69700003
-0.13956621 0.018511966 0.69700003
-0.076705262 0.019478517 0.69749999
-0.07410913 0.019782081 0.69700003
-0.027080154 0.020418508 0.69700003
-0.0042076614 0.018538525 0.69800001
-0.16076851 0.022357082 0.69800001
-0.078556821 0.022325052 0.69700003
-0.07002826 0.022341067 0.69749999
-0.067021258 0.02229302 0.69599998
-0.15694995 0.024266362 0.69800001
-0.15470749 0.025167484 0.6965
-0.14613351 0.025166117 0.6965
-0.082369909 0.026138138 0.69700003
-0.078556821 0.024231596 0.69700003
-0.072732687 0.02419683 0.69599998
-0.061486017 0.026175639 0.69800001
-0.028945105 0.026100636 0.69599998
-0.2142283 0.029994197 0.69800001
-0.15313138 0.028084919 0.69800001
-0.15078881 0.028004445 0.69599998
-0.085229725 0.029951228 0.69700003
-0.082251728 0.028004445 0.69599998
-0.076595291 0.028977837 0.6965
-0.074743733 0.028997954 0.69700003
-0.088215925 0.031903476 0.69800001
-0.079396009 0.031812061 0.69599998
-0.030848915 0.031812061 0.69599998
-0.22884494 0.03371587 0.69599998
-0.22663862 0.033812754 0.69800001
-0.092034474 0.035722032 0.69800001
-0.089931518 0.034691997 0.6965
-0.082251728 0.035619676 0.69599998
-0.079481229 0.034705475 0.69675004
-0.076705262 0.034743175 0.69749999
-0.073870204 0.034755282 0.69774997
-0.071032412 0.034767393 0.69800001
-0.03089324 0.033764314 0.69700003
-0.091770761 0.037523486 0.69599998
-0.08415553 0.037523486 0.69599998
-0.08248809 0.037631311 0.69800001
-0.079453737 0.037550442 0.6965
-0.076650277 0.037577398 0.69700003
-0.07373821 0.037550442 0.6965
-0.070828877 0.037523486 0.69599998
-0.068069465 0.037577398 0.69700003
-0.064304531 0.037604354 0.69749999
-0.094626471 0.041331097 0.69599998
-0.091902621 0.039483942 0.69700003
-0.085228354 0.040438578 0.69700003
-0.079624161 0.039540589 0.69800001
-0.072837189 0.041390486 0.69700003
-0.06997738 0.039483942 0.69700003
-0.067117557 0.039483942 0.69700003
-0.064304531 0.039512265 0.69749999
-0.032752719 0.039427292 0.69599998
-0.0061081764 0.041390486 0.69700003
-0.0042076614 0.041449867 0.69800001
-0.099671595 0.043359146 0.69800001
-0.097622253 0.043297026 0.69700003
-0.094626471 0.043234907 0.69599998
-0.084276453 0.043297026 0.69700003
-0.069123134 0.043359146 0.69800001
-0.067021258 0.043234907 0.69599998
-0.064210966 0.043265969 0.6965
-0.061397929 0.043297026 0.69700003
-0.10349015 0.046223067 0.69800001
-0.099385999 0.047042523 0.69599998
-0.085169263 0.046124417 0.6965
-0.069123134 0.045268428 0.69800001
-0.067117557 0.046158209 0.69700003
-0.06521102 0.047110118 0.69700003
-0.061397929 0.047110118 0.69700003
-0.059576739 0.047177706 0.69800001
-0.055758186 0.047177706 0.69800001
-0.0042076614 0.045268428 0.69800001
-0.0022983826 0.045268428 0.69800001
-0.095578372 0.050850134 0.69599998
-0.086059339 0.048946328 0.69599998
-0.069024108 0.049016658 0.69700003
-0.067117557 0.049971294 0.69700003
-0.064304531 0.050959729 0.69749999
-0.061486017 0.050996259 0.69800001
-0.058558766 0.049988873 0.69725001
-0.055678304 0.049016658 0.69700003
-0.036612868 0.049016658 0.69700003
-0.0022983826 0.049086984 0.69800001
-0.10158087 0.052905541 0.69800001
-0.086306639 0.052905541 0.69800001
-0.064257748 0.052829746 0.69700003
-0.061397929 0.052829746 0.69700003
-0.0099354973 0.052905541 0.69800001
-0.0013420969 0.052867644 0.69749999
-0.097762316 0.054814819 0.69800001
-0.095715709 0.05664283 0.69700003
-0.090125196 0.056724098 0.69800001
-0.089041442 0.054736286 0.69700003
-0.0099354973 0.056724098 0.69800001
-0.0070658294 0.056683466 0.69749999
-0.0070715789 0.058633372 0.69800001
-0.078444108 0.060369179 0.69599998
-0.0099354973 0.062451933 0.69800001
-0.007064322 0.061431557 0.69725001
-0.0042046476 0.06145256 0.69749999
-0.0010251586 0.061756771 0.69733334
0.0015201746 0.061497293 0.69800001
-0.01373435 0.064269006 0.69700003
0.0015179967 0.064269006 0.69700003
0.0034294531 0.064361207 0.69800001
-0.080463365 0.068082094 0.69700003
-0.048121065 0.068179771 0.69800001
-0.013754055 0.066270493 0.69800001
-0.011192291 0.067447491 0.69700003
-0.00800322 0.06798441 0.69599998
-0.0042016334 0.068082094 0.69700003
-0.0013434646 0.067177661 0.69749999
0.0015201746 0.066270493 0.69800001
-0.19022176 -0.13861553 0.70099998
-0.18776701 -0.13630804 0.699
-0.1992391 -0.13248402 0.699
-0.18803564 -0.1345883 0.69999999
-0.18420614 -0.13267355 0.69999999
-0.18255182 -0.13286307 0.70099998
-0.20143889 -0.13075881 0.69999999
-0.18420614 -0.13075881 0.69999999
-0.20335364 -0.12884405 0.69999999
-0.18120381 -0.12779601 0.69949996
-0.20541501 -0.12414511 0.70050001
-0.17858937 -0.12414511 0.70050001
-0.17679937 -0.12519315 0.70099998
-0.20497514 -0.12101193 0.699
-0.18011896 -0.12292395 0.699
-0.17438294 -0.12101193 0.699
-0.20261948 -0.11793701 0.69966668
-0.1746324 -0.1192703 0.69999999
-0.17200565 -0.11944069 0.70099998
-0.16912942 -0.1175232 0.70099998
-0.19980916 -0.11560572 0.70099998
-0.16888815 -0.11544081 0.69999999
-0.19732709 -0.11336388 0.699
-0.19377989 -0.1116113 0.69999999
-0.19090778 -0.1116113 0.69999999
-0.16561739 -0.11283374 0.69966668
-0.16337697 -0.11177074 0.70099998
-0.19377989 -0.10969656 0.69999999
-0.15954199 -0.10985327 0.70099998
-0.1940567 -0.10601829 0.70099998
-0.19159105 -0.10571582 0.699
-0.18721257 -0.10785879 0.70050001
-0.16015798 -0.10674881 0.69949996
-0.15717481 -0.10571582 0.699
-0.19350305 -0.10380381 0.699
-0.15908681 -0.10380381 0.699
-0.15717481 -0.10380381 0.699
-0.15187205 -0.10218333 0.70099998
-0.19980916 -0.10026584 0.70099998
-0.19732709 -0.099979773 0.699
-0.16004282 -0.099979773 0.699
-0.15717481 -0.099979773 0.699
-0.15406124 -0.10066479 0.69933337
-0.15187205 -0.10026584 0.70099998
-0.20239764 -0.097249314 0.69999999
-0.16972353 -0.096224532 0.69949996
-0.16004282 -0.096155748 0.699
-0.15717481 -0.096155748 0.699
-0.15143876 -0.096155748 0.699
-0.14963371 -0.097180538 0.69949996
-0.14761473 -0.094243743 0.699
-0.20335364 -0.092463814 0.69999999
-0.17438294 -0.09041971 0.699
-0.17259428 -0.091441765 0.69949996
-0.16972421 -0.091441765 0.69949996
-0.16482286 -0.092331722 0.699
-0.14974065 -0.091506436 0.69999999
-0.1992391 -0.088507697 0.699
-0.18011896 -0.088507697 0.699
-0.17820697 -0.088507697 0.699
-0.1631439 -0.08863432 0.69999999
-0.15335077 -0.088507697 0.699
-0.19541508 -0.084683672 0.699
-0.183943 -0.084683672 0.699
-0.17820697 -0.086595684 0.699
-0.17679937 -0.086843446 0.70099998
-0.16291085 -0.086595684 0.699
-0.16027313 -0.084804818 0.69999999
-0.15739965 -0.084804818 0.69999999
-0.15463859 -0.085822761 0.70050001
-0.019537712 -0.086719565 0.69999999
-0.016676808 -0.086781502 0.70050001
-0.19213922 -0.081090994 0.70099998
-0.183943 -0.082771651 0.699
-0.18159306 -0.083008476 0.70099998
-0.15931441 -0.082890064 0.69999999
-0.15762451 -0.083008476 0.70099998
-0.11735733 -0.081090994 0.70099998
-0.11543985 -0.081090994 0.70099998
-0.11219006 -0.082329847 0.70066667
-0.10953093 -0.082890064 0.69999999
-0.10681117 -0.083008476 0.70099998
-0.031026207 -0.082890064 0.69999999
-0.18684776 -0.079736471 0.70033336
-0.11910468 -0.079060569 0.69999999
-0.11266819 -0.079661168 0.69966668
-0.10945269 -0.079961471 0.69949996
-0.10658193 -0.080917478 0.69949996
-0.10363842 -0.078947626 0.699
-0.03107053 -0.079173513 0.70099998
-0.11727363 -0.076242179 0.70050001
-0.1151105 -0.077035606 0.699
-0.11208392 -0.076508477 0.69999999
-0.10945269 -0.076134704 0.69949996
-0.10650644 -0.077035606 0.699
-0.10378668 -0.075231068 0.69999999
-0.032988012 -0.075338542 0.70099998
-0.0099781994 -0.075338542 0.70099998
-0.11543985 -0.073421054 0.70099998
-0.11248265 -0.073368683 0.70050001
-0.1096874 -0.073421054 0.70099998
-0.10776991 -0.073421054 0.70099998
-0.11727363 -0.070493832 0.70050001
-0.11527517 -0.069486819 0.69999999
-0.11240236 -0.070443511 0.69999999
-0.10953093 -0.070444196 0.69999999
-0.10658193 -0.070393883 0.69949996
-0.025318075 -0.069586083 0.70099998
-0.023400592 -0.071503572 0.70099998
-0.0042136894 -0.069387555 0.699
-0.11702251 -0.067475542 0.699
-0.10393494 -0.067668602 0.70099998
-0.027157856 -0.067475542 0.699
-0.00039021898 -0.067572072 0.69999999
-0.11543985 -0.063833639 0.70099998
-0.11261513 -0.064957462 0.69933337
-0.10378668 -0.064701319 0.69999999
-0.10187193 -0.063742578 0.69999999
0.0015245302 -0.065657325 0.69999999
-0.11256362 -0.061916146 0.70099998
-0.1096874 -0.061916146 0.70099998
-0.10776991 -0.061916146 0.70099998
0.0053463802 -0.061739501 0.699
-0.13916016 -0.058935676 0.69974995
-0.13643479 -0.058998495 0.70050001
-0.13461469 -0.05808118 0.70099998
-0.13077973 -0.059039921 0.70099998
-0.12785824 -0.059018523 0.70074999
-0.12432867 -0.059330974 0.70066667
-0.11543985 -0.059998665 0.70099998
-0.11232276 -0.058912911 0.69950002
-0.10960916 -0.058997128 0.70050001
-0.10644034 -0.059330974 0.70066667
-0.10290207 -0.059955873 0.70050001
0.009183527 -0.059913076 0.69999999
-0.14198017 -0.055086143 0.69949996
-0.1304066 -0.054091442 0.699
-0.12467057 -0.054091442 0.699
-0.12202001 -0.055145547 0.70025003
-0.11841062 -0.055418622 0.69966668
-0.11136606 -0.055086143 0.69949996
-0.10953093 -0.056083575 0.69999999
-0.1066588 -0.055126201 0.69999999
-0.10290207 -0.055164892 0.70050001
-0.10009998 -0.05424621 0.70099998
-0.097085059 -0.055126201 0.69999999
-0.094212934 -0.055124834 0.69999999
-0.091374449 -0.055145547 0.70024997
-0.088342302 -0.054091442 0.699
-0.085474283 -0.055047449 0.699
-0.082783528 -0.055164892 0.70050001
-0.080809683 -0.055124834 0.69999999
-0.031026207 -0.056083575 0.69999999
0.0139704 -0.055126201 0.69999999
-0.07900764 -0.052328728 0.70099998
-0.14420211 -0.048493754 0.70099998
-0.07900764 -0.048493754 0.70099998
-0.021483107 -0.050411243 0.70099998
-0.019565621 -0.048493754 0.70099998
-0.14187869 -0.046443388 0.699
-0.088342302 -0.046443388 0.699
-0.084518276 -0.046443388 0.699
-0.080694243 -0.046443388 0.699
-0.14208166 -0.044595081 0.69999999
-0.13844965 -0.042741302 0.70099998
-0.13269721 -0.042741302 0.70099998
-0.12310979 -0.042741302 0.70099998
-0.12101942 -0.042680334 0.69999999
-0.11927482 -0.042741302 0.70099998
-0.10776991 -0.042741302 0.70099998
-0.1007704 -0.044531375 0.699
-0.097902372 -0.044531375 0.699
-0.088468686 -0.044595081 0.69999999
-0.080694243 -0.044531375 0.699
-0.063486122 -0.042619362 0.699
-0.061574105 -0.044531375 0.699
-0.058747396 -0.043605853 0.69949996
-0.011878714 -0.042680334 0.69999999
0.032160521 -0.044595081 0.69999999
-0.12119231 -0.040823817 0.70099998
-0.065491691 -0.040765584 0.69999999
-0.05775008 -0.040707346 0.699
-0.05599783 -0.040823817 0.70099998
-0.011861744 -0.040707346 0.699
-0.063576944 -0.036936086 0.69999999
-0.061662193 -0.037893459 0.69999999
-0.059165183 -0.038249586 0.70066667
-0.052088447 -0.036936086 0.69999999
-0.049180485 -0.036909699 0.69949996
-0.015730653 -0.036988851 0.70099998
-0.011878714 -0.038850833 0.69999999
-0.049181171 -0.034040313 0.69950002
-0.046344198 -0.033106584 0.69999999
-0.015730653 -0.03315388 0.70099998
-0.01377376 -0.034971308 0.699
-0.011861744 -0.034971308 0.699
-0.048327889 -0.031236395 0.70099998
-0.011878714 -0.031191835 0.69999999
-0.0023016755 -0.031147277 0.699
0.0015223523 -0.031147277 0.699
-0.048258949 -0.029277088 0.69999999
-0.046410404 -0.029318912 0.70099998
-0.013813169 -0.029318912 0.70099998
-0.010905738 -0.027323248 0.699
-0.00038966152 -0.029235264 0.699
0.0015267081 -0.029318912 0.70099998
-0.1822914 -0.02544759 0.69999999
-0.1746324 -0.02544759 0.69999999
-0.015730653 -0.025483944 0.70099998
-0.01377376 -0.025411237 0.699
-0.00039021898 -0.02544759 0.69999999
0.0053616776 -0.025483944 0.70099998
0.024501519 -0.02544759 0.69999999
-0.18803564 -0.021618091 0.69999999
-0.18420614 -0.023532839 0.69999999
-0.17438294 -0.023499221 0.699
-0.16888815 -0.021618091 0.69999999
-0.14952675 -0.021587208 0.699
-0.14611961 -0.021648973 0.70099998
-0.05216286 -0.021648973 0.70099998
-0.050102025 -0.021587208 0.699
-0.042575438 -0.023566457 0.70099998
-0.040657952 -0.023566457 0.70099998
-0.029153043 -0.021648973 0.70099998
-0.011250866 -0.022917001 0.70066667
-0.0070817098 -0.021587208 0.699
0.020701554 -0.021648973 0.70099998
-0.19213922 -0.019731488 0.70099998
-0.19022176 -0.019731488 0.70099998
-0.16984415 -0.01970334 0.69999999
-0.14889024 -0.019717414 0.70050001
-0.14611961 -0.019731488 0.70099998
-0.054080341 -0.019731488 0.70099998
-0.050102025 -0.019675193 0.699
-0.027157856 -0.019675193 0.699
0.01878407 -0.019731488 0.70099998
-0.1669734 -0.016831217 0.69999999
-0.15570703 -0.016855262 0.70099998
-0.14228463 -0.017814003 0.70099998
-0.055917948 -0.017788593 0.69999999
-0.052651376 -0.017125843 0.69900006
-0.02145246 -0.017788593 0.69999999
0.016842524 -0.017788593 0.69999999
-0.16392513 -0.012987447 0.69924998
-0.16038626 -0.013010322 0.70049995
-0.15717481 -0.012983145 0.699
-0.063576944 -0.012044345 0.69999999
-0.059747446 -0.012044345 0.69999999
-0.13633741 -0.010129595 0.69999999
-0.065491691 -0.010129595 0.69999999
-0.19377989 -0.0082148463 0.69999999
-0.19063506 -0.0062910966 0.699
-0.14016691 -0.0063000969 0.69999999
-0.065398134 -0.0082031107 0.699
-0.017610375 -0.0072516035 0.69949996
-0.18203099 -0.0043790825 0.699
-0.14761473 -0.0043790825 0.699
-0.14208166 -0.0043853475 0.69999999
-0.067310147 -0.0043790825 0.699
-0.18120381 -0.0015114587 0.69949996
-0.14878328 -0.00055584876 0.69999999
-0.14303768 -0.0024705981 0.69999999
-0.069420226 -0.00055664283 0.70099998
-0.18037665 0.0013589005 0.69999999
-0.14867634 0.0013579298 0.69949996
-0.17558977 0.0042310245 0.69999999
-0.15335077 0.003268973 0.699
-0.15165541 0.0042310245 0.69999999
-0.071337707 0.0051958109 0.70099998
-0.17271765 0.0071031479 0.69999999
-0.1705589 0.0070930007 0.699
-0.15143876 0.0070930007 0.699
-0.0099781994 0.0071132951 0.70099998
-0.0071019721 0.0071132951 0.70099998
-0.17224298 0.01030481 0.70066667
-0.1697249 0.0099674631 0.69949996
-0.14857075 0.0090050148 0.699
-0.14570272 0.010917029 0.699
-0.1439964 0.010932647 0.69999999
-0.073046193 0.010917029 0.699
-0.023333829 0.0090050148 0.699
-0.013813169 0.010948265 0.70099998
